ply                 
format ascii 1.0    
element vertex 391
property float x    
property float y    
property float z    
property uchar red  
property uchar green
property uchar blue 
end_header          
0.466662 -0.804086 2.79315 165 136 99 
0.921839 -1.75543 6.50516 222 188 127 
1.01783 -1.86797 6.97119 198 163 107 
0.798511 -1.8661 7.47357 172 137 81 
-0.104783 -1.30863 6.17826 82 70 46 
-0.207024 -1.6388 8.94328 167 150 121 
0.143306 -1.14311 7.03633 144 99 47 
0.33832 -0.833684 2.67018 125 101 51 
0.0897348 -1.29838 4.9883 111 82 44 
0.190657 -0.994453 4.5485 103 85 44 
-0.13094 -1.31262 6.4259 185 166 138 
0.353778 -1.23458 7.39973 252 218 157 
0.776817 -0.465372 4.94569 63 30 5 
0.997753 -1.99271 7.2721 234 202 142 
1.06169 -1.87835 7.0296 246 208 159 
1.06128 -1.91022 7.34489 153 122 75 
3.33786 -2.56446 18.9761 68 36 6 
-5.42973 4.69319 -51.8168 118 88 48 
1.07088 -1.98848 7.15243 253 224 165 
1.07734 -1.98687 7.19555 178 145 89 
1.066 -1.95786 7.13599 234 198 150 
1.03588 -1.96452 7.23839 193 160 102 
1.08112 -1.91934 7.35769 252 221 173 
1.11337 -1.83009 7.11837 219 186 149 
1.13509 -1.7412 7.05365 241 203 156 
0.233622 -1.0487 6.62861 205 148 84 
0.251108 -1.04423 7.13123 141 100 52 
0.312464 -1.31178 9.07178 153 110 67 
0.137398 -1.04272 7.2847 235 196 136 
0.112882 -1.01418 7.31507 238 195 145 
-1529.52 1466.5 -14931.1 98 71 33 
0.925095 -1.97579 7.22164 253 223 159 
1.05306 -1.95769 7.22519 193 161 104 
0.990507 -1.82456 6.77424 127 93 44 
1.00513 -1.94184 7.24902 252 225 165 
1.0182 -1.89484 7.15491 221 188 137 
1.03518 -1.85647 7.02057 231 195 144 
1.07703 -1.91064 7.28811 253 228 179 
0.95033 -1.88099 7.29669 255 230 174 
0.991802 -1.84669 7.21003 163 130 79 
-0.283801 -1.82302 10.7085 85 68 48 
0.178932 -1.0944 7.33466 247 198 142 
0.822235 -0.69901 7.45527 119 85 41 
0.812596 -2.26263 7.35029 83 69 55 
0.822224 -2.02984 7.35466 173 140 88 
1.13331 -1.86976 7.06167 181 148 97 
1.00845 -1.75836 7.18983 243 210 166 
0.518105 -1.21431 7.22237 206 199 161 
0.24351 -1.12095 7.25699 192 132 68 
0.228291 -1.05404 7.29886 118 80 32 
-0.0551565 -0.991835 7.36074 53 41 31 
1.05974 -2.07976 7.23862 229 196 144 
0.994712 -2.06406 7.28117 184 143 84 
0.994712 -2.06406 7.28117 184 143 84 
0.855017 -1.95935 7.26234 150 115 64 
1.06534 -1.86482 7.02424 174 140 88 
1.07168 -1.87854 7.13524 159 125 73 
1.08292 -1.90142 7.32119 168 133 84 
0.77955 -1.83955 7.36615 180 144 89 
0.954174 -1.79659 7.26296 163 137 84 
0.170262 -1.82407 7.62479 212 184 136 
0.511645 -1.23205 7.22939 105 96 59 
0.350363 -1.24644 7.40426 122 88 55 
0.206981 -1.20159 7.44585 144 109 51 
0.25496 -1.09158 7.26013 173 126 76 
0.983992 -2.04523 7.14679 179 139 78 
1.0343 -1.99396 7.20499 172 143 85 
0.853752 -2.02841 7.38468 162 128 75 
0.376886 -1.94998 7.617 104 89 58 
0.533817 -1.78713 7.48579 181 144 93 
0.533817 -1.78713 7.48579 181 144 93 
0.287506 -1.80262 7.60123 255 239 184 
0.585324 -1.77041 7.48968 192 152 104 
0.239383 -1.79748 7.61447 241 217 167 
0.0346404 -1.77411 7.65819 98 87 47 
0.853839 -1.66884 7.31147 153 131 94 
0.925654 -1.64625 7.21203 176 145 104 
0.824612 -1.62028 7.31767 255 235 194 
0.384452 -1.637 7.55607 168 135 94 
0.411804 -1.6123 7.52052 143 110 69 
0.188383 -1.55975 7.55515 181 147 106 
0.296239 -1.39 7.47556 170 128 82 
0.260591 -1.37997 7.47432 158 118 66 
0.636023 -1.35067 7.32443 223 173 132 
1.6897 -1.35027 7.41645 147 85 57 
0.50935 -1.30809 7.33865 109 93 58 
0.0314789 -1.29122 7.50409 244 210 160 
0.0480592 -1.22565 7.48567 161 124 66 
0.247309 -1.21129 7.39682 231 193 138 
0.358969 -1.19047 7.29669 158 111 60 
0.223003 -1.17326 7.40837 118 78 43 
0.223003 -1.17326 7.40837 118 78 43 
1.67296 -1.13288 7.40013 122 89 63 
0.0904364 -1.09176 7.2834 95 58 11 
0.424307 -1.07645 7.16981 174 160 118 
1.97098 -1.00227 7.5118 125 103 77 
-1.1108 -0.206583 8.79813 103 101 95 
0.755162 -2.24325 7.39168 253 230 178 
0.755162 -2.24325 7.39168 253 230 178 
0.993856 -2.15964 7.26683 255 219 152 
1.07962 -2.0728 7.19526 153 130 87 
0.810439 -2.10974 7.36472 137 105 57 
0.785166 -2.0952 7.36504 241 205 156 
0.83944 -2.07114 7.32174 145 113 60 
0.829058 -1.9749 7.35184 131 102 51 
0.675246 -1.98709 7.4234 148 115 56 
0.656582 -1.961 7.43548 220 184 137 
0.616169 -1.93994 7.46452 107 80 36 
0.738883 -1.91846 7.40988 136 103 53 
0.403506 -1.92794 7.55638 219 199 164 
0.792243 -1.87691 7.39791 157 121 67 
0.515071 -1.86878 7.51361 152 117 65 
0.335272 -1.86677 7.57451 236 216 173 
0.442199 -1.85192 7.55476 219 204 164 
1.12348 -1.69276 7.01708 254 217 166 
0.916068 -1.69898 7.24502 208 176 130 
0.809795 -1.64011 7.33034 114 92 53 
0.112149 -1.58646 7.58638 86 68 33 
-0.00809131 -1.56044 7.59062 91 69 34 
0.223185 -1.50671 7.52875 210 171 129 
1.36788 -1.47075 7.34997 131 82 49 
1.54518 -1.41877 7.35687 198 139 98 
1.15832 -1.33403 7.30753 195 123 84 
1.83692 -1.36051 7.47857 141 94 57 
1.07154 -1.25532 7.27284 103 69 42 
1.46476 -1.25241 7.32491 155 99 52 
0.354934 -1.21936 7.34607 255 236 173 
-0.0252512 -1.17241 7.47192 144 105 51 
0.178546 -1.0256 7.27032 226 191 141 
1.58468 -1.00283 7.38483 65 43 24 
0.45707 -0.845847 7.57964 201 155 93 
0.865257 -0.785482 7.43577 228 191 150 
1.8073 -0.780025 7.47265 202 157 125 
1.40417 -0.742835 7.38247 65 42 16 
1.67503 -0.726242 7.41365 171 107 67 
0.632332 -0.726556 7.52061 99 86 46 
1.00651 -0.689668 7.44792 156 114 72 
0.492461 -0.697585 7.59598 254 224 164 
1.11626 -0.594142 7.43351 72 46 7 
0.74776 -0.594145 7.48644 137 97 56 
-0.313106 0.0608054 8.72359 179 183 196 
0.813028 -2.24085 7.36268 253 213 152 
0.840052 -2.2267 7.35426 107 77 52 
0.753107 -2.20025 7.41859 210 178 122 
0.661974 -2.02624 7.45504 255 235 179 
0.819053 -1.88515 7.37942 255 228 170 
0.889827 -1.85618 7.30274 124 95 45 
0.0797887 -1.90887 7.63213 221 201 149 
1.03746 -1.79586 7.16468 181 150 104 
1.06541 -1.71493 7.08441 205 171 126 
0.55727 -1.78976 7.46681 255 236 182 
0.0578199 -1.82405 7.63988 191 178 140 
-0.015501 -1.76562 7.65299 49 43 19 
0.828189 -1.68058 7.35581 255 235 195 
0.0900089 -1.68775 7.60028 252 231 186 
1.01322 -1.56794 7.06072 161 138 85 
0.216385 -1.67401 7.57752 255 239 193 
0.572833 -1.67262 7.5684 82 62 38 
0.054175 -1.55732 7.60096 93 77 47 
0.241283 -1.53153 7.53761 103 86 44 
1.26731 -1.43939 7.33274 95 48 12 
0.0585255 -1.42994 7.53829 121 89 44 
0.672484 -1.36662 7.31077 246 207 166 
1.81386 -1.40064 7.48141 228 170 117 
0.00253945 -1.39459 7.54634 253 215 171 
0.0443402 -1.36601 7.53623 124 87 52 
-0.0233453 -1.36258 7.55994 114 80 39 
0.564319 -1.30797 7.33531 93 84 56 
1.16393 -1.29213 7.30628 52 24 0 
1.15554 -1.26048 7.31306 198 137 91 
1.15554 -1.26048 7.31306 198 137 91 
1.12439 -1.24633 7.31226 81 49 20 
1.20286 -1.22797 7.33111 198 140 97 
0.0221649 -1.24155 7.50095 222 185 119 
1.12731 -1.208 7.30616 141 100 71 
0.103047 -1.2284 7.45013 249 210 148 
1.05273 -1.19456 7.25032 86 57 36 
1.37092 -1.1947 7.29296 195 126 97 
-0.142157 -1.21829 7.51247 255 238 191 
0.578696 -1.15347 7.15298 251 222 180 
1.23378 -1.1603 7.31869 76 42 17 
0.376276 -1.12557 7.28433 247 214 166 
0.314362 -1.08908 7.27535 136 102 62 
1.11458 -1.02849 7.34306 167 120 89 
1.04023 -0.970334 7.31173 48 27 0 
1.04023 -0.970334 7.31173 48 27 0 
1.08703 -0.969226 7.36013 198 150 103 
0.807665 -0.923039 7.41879 136 107 69 
1.39894 -0.908454 7.35404 224 160 109 
1.74122 -0.868252 7.43102 101 71 36 
1.34969 -0.837337 7.35393 236 185 126 
1.74272 -0.776073 7.44646 244 183 120 
1.74272 -0.776073 7.44646 244 183 120 
1.08937 -0.755371 7.37079 100 64 29 
1.11909 -0.739711 7.36186 225 177 124 
0.889532 -0.727903 7.44466 254 223 157 
1.50188 -0.622597 7.41362 181 137 98 
1.70019 -0.536381 7.54922 248 187 135 
1.17824 -0.313838 7.59746 255 226 176 
1.38444 -0.248562 7.66151 165 114 73 
1.29034 0.0962126 8.12049 85 85 96 
2.18514 -2.46026 7.91516 83 88 102 
0.943624 -2.19673 7.27801 255 234 178 
0.626081 -2.02468 7.43994 166 128 92 
1.02741 -1.94402 7.22671 254 235 175 
1.14938 -1.88761 7.07839 235 200 143 
0.554603 -1.95052 7.48488 151 116 77 
0.127986 -1.96105 7.64863 255 228 175 
0.127986 -1.96105 7.64863 255 228 175 
0.932301 -1.79523 7.27873 157 128 75 
0.0657935 -1.86381 7.66186 68 56 40 
0.386374 -1.74873 7.5544 94 76 47 
1.46728 -1.66729 7.40735 73 45 23 
0.482133 -1.66683 7.52085 71 50 26 
1.43594 -1.63771 7.41532 169 112 75 
1.49924 -1.62446 7.40732 185 130 91 
0.441678 -1.64348 7.53866 239 213 165 
1.32857 -1.61114 7.38241 147 92 58 
1.32857 -1.61114 7.38241 147 92 58 
1.35971 -1.50007 7.33835 69 38 16 
0.538026 -1.5221 7.57965 37 8 0 
0.074362 -1.39854 7.5266 255 218 167 
0.074362 -1.39854 7.5266 255 218 167 
1.26157 -1.36295 7.3146 104 58 31 
1.34593 -1.362 7.31636 209 149 98 
0.429691 -1.35732 7.36058 75 47 21 
1.72425 -1.34188 7.45825 103 69 42 
0.829901 -1.2567 7.00843 253 220 172 
0.765789 -1.25764 7.06429 253 226 178 
0.693229 -1.22208 7.12298 131 110 80 
1.31644 -1.22857 7.31429 156 110 72 
1.48309 -1.17063 7.30784 56 34 14 
1.36549 -1.16197 7.32844 57 24 5 
1.4147 -1.16533 7.32403 150 105 71 
-0.110355 -1.18045 7.49761 37 28 20 
0.525951 -1.13001 7.18937 245 216 172 
0.289613 -1.11236 7.28774 255 235 182 
1.23084 -1.12154 7.32427 214 152 108 
1.23084 -1.12154 7.32427 214 152 108 
-0.090738 -1.07259 7.42581 255 234 196 
1.15562 -1.04115 7.34162 39 12 0 
1.42083 -1.01884 7.32747 103 50 25 
1.30929 -0.996045 7.33512 78 48 16 
0.905753 -0.983969 7.38103 142 99 61 
1.7452 -0.974952 7.42787 78 52 24 
1.99011 -0.968976 7.50821 51 30 20 
1.02059 -0.923158 7.30051 133 114 74 
0.868982 -0.881951 7.38205 44 27 0 
1.0594 -0.861867 7.33619 148 114 78 
1.0594 -0.861867 7.33619 148 114 78 
1.22244 -0.853423 7.34117 119 72 37 
1.36971 -0.81141 7.34498 56 34 11 
1.10023 -0.798049 7.37022 193 154 113 
1.51549 -0.758105 7.42928 178 128 85 
1.51549 -0.758105 7.42928 178 128 85 
1.73189 -0.737821 7.45922 84 55 28 
1.79221 -0.714954 7.48749 194 137 91 
1.45619 -0.700629 7.46439 144 94 63 
1.81119 -0.661254 7.54707 180 121 82 
0.884639 -0.640389 7.42378 107 75 28 
1.83064 -0.626532 7.54003 47 38 18 
1.73755 -0.607544 7.46567 65 44 24 
-0.0175654 -0.701949 8.73856 88 88 107 
1.66376 -0.610992 7.49202 245 176 123 
-1.59647 -0.713158 9.39938 89 96 105 
-1.59647 -0.713158 9.39938 89 96 105 
0.946768 -0.567989 7.49149 112 69 20 
0.860631 -0.550569 7.51964 91 59 25 
1.08753 -0.537435 7.49133 40 24 1 
0.916587 -0.526045 7.50026 255 229 167 
1.84085 -0.523482 7.60996 84 47 25 
1.84085 -0.523482 7.60996 84 47 25 
1.24174 -0.488801 7.52341 66 43 15 
1.25981 -0.424542 7.52898 102 71 34 
1.58643 -0.425485 7.54853 237 175 127 
0.962502 -0.416027 7.58698 93 58 20 
1.35033 -0.346954 7.57598 75 52 27 
0.922279 -0.346162 7.71407 140 115 68 
1.05755 -0.258992 7.69465 247 186 131 
0.696785 -1.99962 7.45241 200 163 106 
0.808963 -1.94519 7.38536 137 110 62 
0.808963 -1.94519 7.38536 137 110 62 
0.646112 -1.78284 7.46534 250 219 170 
0.271069 -1.65109 7.55531 105 82 45 
0.983913 -1.49803 7.06409 191 161 111 
0.580583 -1.5452 7.57398 122 88 45 
0.898719 -1.34157 7.03031 255 217 166 
0.87416 -1.30844 7.07876 107 76 49 
0.480402 -1.33781 7.37599 255 229 179 
0.253561 -1.33164 7.4556 247 200 136 
1.5524 -1.29918 7.33873 97 55 25 
1.50026 -1.21617 7.31392 220 152 101 
1.69804 -1.09947 7.39637 38 27 7 
1.35512 -1.07684 7.36042 109 68 41 
1.49847 -1.06813 7.32584 37 9 1 
1.83329 -1.02168 7.49153 31 25 13 
1.25931 -0.981612 7.30191 226 155 115 
1.57076 -0.960644 7.38613 217 155 111 
1.4351 -0.778678 7.40168 51 31 6 
1.4351 -0.778678 7.40168 51 31 6 
0.843137 -0.723492 7.39604 93 60 23 
1.1779 -0.708793 7.37395 215 162 108 
0.581605 -0.694525 7.62749 122 88 50 
1.41656 -0.676818 7.43701 47 25 4 
1.23548 -0.65841 7.40821 247 191 131 
0.781911 -0.652914 7.49318 240 204 156 
1.38225 -0.645634 7.45458 225 160 110 
1.38225 -0.645634 7.45458 225 160 110 
0.998749 -0.641222 7.44758 57 33 1 
0.0894953 -0.705447 8.68183 76 81 95 
1.62047 -0.604596 7.49955 80 41 15 
1.42235 -0.590429 7.45335 247 181 119 
0.691212 -0.581511 7.57441 107 83 52 
0.745535 -0.561694 7.54218 255 239 184 
0.745535 -0.561694 7.54218 255 239 184 
1.29007 -0.548026 7.49902 57 39 13 
1.36882 -0.50799 7.50191 252 196 126 
1.41995 -0.498247 7.46348 88 50 21 
1.39898 -0.449208 7.47138 214 164 113 
1.22895 -0.306023 7.58884 82 56 34 
1.01609 -0.241491 7.71496 114 89 48 
1.01609 -0.241491 7.71496 114 89 48 
1.48136 -0.161703 7.80521 61 50 28 
1.27163 0.186551 8.00447 88 91 101 
0.816455 -2.07452 7.33415 201 169 116 
0.705234 -1.767 7.45351 59 42 15 
0.327033 -1.74342 7.56474 255 223 176 
0.281492 -1.59167 7.54445 251 220 173 
0.795611 -1.36989 7.19307 255 235 185 
0.79417 -0.995975 7.35063 148 101 64 
1.75877 -0.825149 7.43451 63 44 24 
1.28788 -0.789793 7.36954 43 21 0 
1.54652 -0.800963 7.43538 36 24 5 
1.00056 -0.746703 7.39817 81 50 21 
1.13591 -0.680391 7.37983 52 28 2 
0.819373 -0.606405 7.4901 75 51 29 
1.73848 -0.494506 7.5697 75 40 24 
1.36692 -0.437393 7.62658 115 79 45 
1.12794 -0.185902 7.78847 99 57 35 
0.155479 -0.05424 8.64216 193 198 212 
0.589931 -1.85563 7.47002 97 63 29 
0.140368 -1.80987 7.5993 255 233 181 
0.370466 -1.56406 7.50126 253 227 181 
1.16513 -1.39558 7.2699 75 43 22 
1.62546 -1.2825 7.34795 248 184 133 
1.93624 -1.07107 7.50134 73 57 46 
1.48967 -0.984554 7.31547 246 188 136 
1.76843 -0.910717 7.44032 250 188 133 
1.54262 -0.903094 7.41139 76 52 30 
2.02177 -0.886953 7.531 87 62 39 
1.44746 -0.849194 7.37649 193 140 94 
1.44746 -0.849194 7.37649 193 140 94 
1.31433 -0.652203 7.46291 39 15 1 
1.9978 -0.652097 7.61381 103 64 43 
1.02695 -0.558648 7.50184 205 160 104 
0.895986 -0.142165 7.93109 49 52 50 
0.526324 -1.7851 7.50456 237 198 148 
0.591202 -1.70016 7.49889 38 30 3 
1.98163 -1.47971 7.68197 27 26 26 
0.305855 -1.26428 7.3858 108 81 38 
0.769886 -1.21344 7.06196 245 214 166 
1.48765 -1.25432 7.30937 223 158 100 
1.82327 -1.11753 7.40081 189 141 103 
1.79597 -0.330302 7.68367 104 68 36 
1.14172 -0.298395 7.63048 223 176 124 
0.589404 -1.68909 7.49199 33 24 0 
0.999486 -1.29955 7.10791 76 45 25 
0.770312 -0.300756 7.83538 255 225 168 
1.68315 -2.48121 8.17907 160 158 176 
2.03261 -2.16826 7.98541 153 150 164 
0.174844 -1.47663 7.52758 103 63 29 
0.434332 -1.45719 7.37952 42 16 1 
0.942117 -0.59874 7.53457 211 161 106 
0.942117 -0.59874 7.53457 211 161 106 
1.99898 -2.57331 8.05578 139 139 154 
1.87653 -1.70534 7.79868 194 187 204 
1.37742 -0.932454 7.31463 201 137 85 
0.958739 -0.839186 7.39259 70 44 15 
1.11335 -0.460959 7.58402 109 78 47 
0.907515 -1.50475 7.20745 255 225 175 
0.7637 -1.30946 7.19584 245 212 165 
0.613576 -1.5635 7.41101 90 61 29 
1.00363 -1.20434 7.32157 75 41 21 
2.55901 -0.261644 7.04264 124 123 129 
0.264715 -0.134938 8.08273 222 224 240 
1.92905 -0.139729 7.80015 18 15 17 
1.92905 -0.139729 7.80015 18 15 17 
0.610192 -0.042927 7.84194 15 11 14 
0.610192 -0.042927 7.84194 15 11 14 
0.907696 -1.00484 7.41644 123 87 54 
2.13941 -0.277241 7.74485 22 22 22 
