ply                 
format ascii 1.0    
element vertex 435
property float x    
property float y    
property float z    
property uchar red  
property uchar green
property uchar blue 
end_header          
0.682767 -1.65321 5.79189 131 100 56 
0.798159 -1.5052 5.85853 222 188 127 
0.289925 -0.6554 2.38821 253 230 168 
0.154747 -1.17966 7.52909 96 59 14 
4.38934 -4.25081 50.3039 121 90 52 
1.16534 -0.370489 8.75494 250 217 169 
0.82299 -1.5172 5.74841 115 83 37 
0.799097 -1.49795 5.7998 195 160 102 
0.909527 -1.76281 7.54894 196 162 111 
0.768203 -4.10423 26.603 141 91 44 
0.299214 -1.04814 6.62594 252 218 157 
0.208261 -1.13919 7.50789 133 97 43 
0.850665 -1.70211 6.57195 234 202 142 
0.907031 -1.60308 6.32675 246 208 159 
0.905382 -1.63363 6.65535 153 122 75 
0.914783 -1.69924 6.45985 253 224 165 
0.880291 -1.63528 6.20152 183 151 91 
0.920022 -1.69821 6.50378 178 145 89 
0.91063 -1.67275 6.44172 234 198 150 
0.883897 -1.67857 6.54224 193 160 102 
0.853764 -1.58966 6.18706 243 206 153 
0.922587 -1.64207 6.67183 252 221 173 
0.951379 -1.56379 6.42482 219 186 149 
0.970237 -1.48751 6.35805 241 203 156 
0.214896 -0.87474 6.16506 155 113 67 
0.216762 -0.887567 6.35337 141 100 52 
0.118359 -0.884894 6.49463 235 196 136 
0.0971796 -0.860643 6.5249 238 195 145 
0.78875 -1.6865 6.51595 253 223 159 
0.898885 -1.67304 6.53119 193 161 104 
0.912066 -1.60099 6.25493 230 192 144 
0.857018 -1.65819 6.54651 252 225 165 
0.869024 -1.61769 6.45226 221 188 137 
0.884324 -1.58398 6.31489 231 195 144 
0.91929 -1.63375 6.59822 253 228 179 
0.809349 -1.60533 6.58719 255 230 174 
0.845866 -1.57639 6.50447 163 130 79 
0.311629 -1.00011 6.52446 242 192 140 
0.152489 -0.928641 6.54836 247 198 142 
0.696179 -0.595195 6.68619 119 85 41 
0.69122 -1.93258 6.64664 83 69 55 
0.698949 -1.73166 6.63958 173 140 88 
0.969056 -1.59789 6.37111 181 148 97 
0.860217 -1.50085 6.483 243 210 166 
0.44131 -1.03296 6.46742 206 199 161 
0.178771 -1.01773 6.59469 138 102 47 
0.208251 -0.951768 6.47669 192 132 68 
0.194826 -0.895031 6.51777 118 80 32 
-0.0446473 -0.840059 6.544 53 41 31 
0.904555 -1.77786 6.54725 229 196 144 
0.848211 -1.76374 6.58458 184 143 84 
0.848211 -1.76374 6.58458 184 143 84 
0.728363 -1.67201 6.55273 150 115 64 
0.909983 -1.59122 6.31937 174 140 88 
0.915104 -1.60432 6.43629 159 125 73 
0.924097 -1.62604 6.63173 168 133 84 
0.661893 -1.56736 6.63792 180 144 89 
0.812925 -1.53301 6.55188 163 137 84 
0.139032 -1.54795 6.84902 212 184 136 
0.435735 -1.048 6.47487 105 96 59 
0.296241 -1.05819 6.63084 122 88 55 
0.174197 -1.01934 6.66423 144 109 51 
0.217922 -0.927046 6.48109 173 126 76 
0.840661 -1.74761 6.45387 179 139 78 
0.882783 -1.70353 6.50869 172 143 85 
0.725701 -1.73104 6.67228 162 128 75 
0.314584 -1.65665 6.85236 104 89 58 
0.450483 -1.51998 6.73648 181 144 93 
0.450483 -1.51998 6.73648 181 144 93 
0.239052 -1.5308 6.83334 255 239 184 
0.494406 -1.50634 6.74437 192 152 104 
0.197953 -1.52581 6.84198 241 217 167 
0.023318 -1.5052 6.8798 98 87 47 
-0.800536 -1.78983 8.34709 160 161 163 
0.725926 -1.42194 6.58352 153 131 94 
0.788729 -1.40381 6.49363 176 145 104 
0.700766 -1.38004 6.58515 255 235 194 
0.322221 -1.38879 6.77814 168 135 94 
0.346245 -1.36965 6.75802 143 110 69 
0.156077 -1.32258 6.77238 181 147 106 
0.249047 -1.17932 6.69812 170 128 82 
0.218867 -1.17032 6.69181 158 118 66 
0.539919 -1.14887 6.57339 223 173 132 
1.43596 -1.15178 6.691 147 85 57 
0.431998 -1.11164 6.57664 109 93 58 
0.0247165 -1.09373 6.7076 244 210 160 
0.209112 -1.02769 6.61497 231 193 138 
0.305208 -1.01111 6.5241 158 111 60 
0.188421 -0.995353 6.62501 118 78 43 
0.188421 -0.995353 6.62501 118 78 43 
1.42171 -0.966727 6.67239 122 89 63 
0.0788015 -0.925759 6.48569 95 58 11 
0.362655 -0.915849 6.40834 174 160 118 
1.67378 -0.855387 6.78016 125 103 77 
0.641826 -1.91664 6.68961 253 230 178 
0.641826 -1.91664 6.68961 253 230 178 
0.848119 -1.84668 6.5773 255 219 152 
0.922434 -1.77264 6.50913 153 130 87 
0.689173 -1.80124 6.65699 137 105 57 
0.667497 -1.78846 6.65535 241 205 156 
0.714528 -1.76826 6.61532 145 113 60 
0.704796 -1.68455 6.63549 131 102 51 
0.572267 -1.69348 6.69631 148 115 56 
0.556252 -1.67127 6.70827 220 184 137 
0.52126 -1.65263 6.7323 107 80 36 
0.626728 -1.6349 6.68266 136 103 53 
0.338375 -1.63987 6.80589 219 199 164 
0.672424 -1.59961 6.67172 157 121 67 
0.280033 -1.58663 6.81597 236 216 173 
0.371318 -1.5742 6.7979 219 204 164 
0.960893 -1.44639 6.32328 254 217 166 
0.780169 -1.44872 6.52636 208 176 130 
-0.724027 -1.76908 8.33743 215 219 219 
0.687835 -1.3966 6.59524 114 92 53 
0.0909297 -1.3446 6.79827 86 68 33 
-0.0107583 -1.32134 6.79239 91 69 34 
0.186056 -1.27869 6.75578 210 171 129 
1.16393 -1.25485 6.63209 131 82 49 
1.31271 -1.20957 6.62714 198 139 98 
0.984387 -1.1368 6.57315 195 123 84 
1.56157 -1.16091 6.75714 141 94 57 
1.245 -1.06821 6.59595 155 99 52 
0.301024 -1.03545 6.57356 255 236 173 
-0.0223352 -0.992908 6.67037 144 105 51 
0.153299 -0.870944 6.48744 226 191 141 
1.34673 -0.85598 6.65509 65 43 24 
0.384253 -0.717374 6.78285 201 155 93 
0.732815 -0.668711 6.66891 228 191 150 
1.53431 -0.666248 6.73567 202 157 125 
1.19263 -0.634489 6.64314 65 42 16 
1.42326 -0.620807 6.68156 171 107 67 
0.533706 -0.617405 6.73309 99 86 46 
0.85267 -0.587771 6.68418 156 114 72 
0.414151 -0.591926 6.7978 254 224 164 
0.946391 -0.507184 6.6755 72 46 7 
-0.280967 0.0576826 7.77662 179 183 196 
0.691835 -1.91508 6.66421 253 213 152 
0.715014 -1.90285 6.65547 107 77 52 
0.639455 -1.87883 6.71041 210 178 122 
0.560522 -1.72707 6.72819 255 235 179 
0.695652 -1.60706 6.65641 255 228 170 
0.421017 -1.62748 6.76571 134 98 46 
0.757301 -1.58326 6.58722 124 95 45 
0.0617512 -1.62087 6.86201 221 201 149 
0.885453 -1.53332 6.46176 181 150 104 
0.910688 -1.46509 6.38818 205 171 126 
0.470885 -1.52303 6.72357 255 236 182 
0.0432523 -1.54768 6.86213 191 178 140 
-0.879617 -1.83206 8.37319 231 231 226 
-0.0189725 -1.49704 6.86781 49 43 19 
0.70324 -1.43126 6.62216 255 235 195 
0.37708 -1.43189 6.74477 245 221 178 
0.0716287 -1.43121 6.81781 252 231 186 
0.86542 -1.33818 6.35166 161 138 85 
0.179246 -1.42013 6.79958 255 239 193 
0.482294 -1.42115 6.80659 82 62 38 
0.201253 -1.29896 6.75736 103 86 44 
1.07711 -1.22687 6.60311 95 48 12 
0.0468798 -1.21065 6.73743 121 89 44 
0.570864 -1.16225 6.55767 246 207 166 
1.54105 -1.19463 6.7554 228 170 117 
-1.39248 -1.45688 8.47237 172 178 194 
-0.00064584 -1.18089 6.74741 253 215 171 
0.498785 -1.14136 6.5725 235 206 166 
0.0349412 -1.15684 6.73828 124 87 52 
-0.0224384 -1.15292 6.75154 114 80 39 
0.478729 -1.11187 6.57646 93 84 56 
0.989867 -1.1017 6.57766 52 24 0 
0.981899 -1.07416 6.57691 198 137 91 
0.981899 -1.07416 6.57691 198 137 91 
0.954929 -1.06169 6.5707 81 49 20 
1.02123 -1.0461 6.58881 198 140 97 
0.0170455 -1.05151 6.70183 222 185 119 
0.957899 -1.02944 6.56823 141 100 71 
0.0862566 -1.04102 6.65672 249 210 148 
0.895706 -1.01851 6.51827 86 57 36 
1.16673 -1.01969 6.57174 195 126 97 
0.493827 -0.982136 6.40437 251 222 180 
1.04859 -0.989294 6.58446 76 42 17 
0.320176 -0.956482 6.51497 247 214 166 
0.267929 -0.925245 6.50087 136 102 62 
0.946601 -0.876607 6.60041 167 120 89 
-1.39268 -1.05198 8.44478 31 39 49 
0.884134 -0.82738 6.57142 48 27 0 
0.884134 -0.82738 6.57142 48 27 0 
0.922586 -0.825906 6.61145 198 150 103 
-0.912622 -0.969938 8.22289 231 225 226 
0.684194 -0.78533 6.65436 136 107 69 
1.18842 -0.775358 6.61715 224 160 109 
1.47869 -0.741429 6.69649 101 71 36 
1.14653 -0.714829 6.61514 236 185 126 
1.48013 -0.663008 6.71219 244 183 120 
1.48013 -0.663008 6.71219 244 183 120 
0.924341 -0.644353 6.61764 100 64 29 
0.949778 -0.63123 6.6105 225 177 124 
0.753111 -0.61987 6.67459 254 223 157 
1.27569 -0.532344 6.67561 181 137 98 
1.44333 -0.458291 6.80971 248 187 135 
0.996875 -0.268232 6.82758 255 226 176 
1.17261 -0.212207 6.90224 165 114 73 
-0.690591 -0.0437397 8.24511 157 162 175 
1.08496 0.0841894 7.31396 85 85 96 
1.86436 -2.10889 7.23149 83 88 102 
0.804982 -1.87834 6.58766 255 234 178 
-0.562325 -2.322 8.38099 179 182 193 
0.529964 -1.72507 6.70956 166 128 92 
0.876597 -1.66065 6.52839 254 235 175 
0.982898 -1.61362 6.39053 235 200 143 
0.468239 -1.66046 6.74479 151 116 77 
0.1024 -1.66513 6.87728 255 228 175 
0.1024 -1.66513 6.87728 255 228 175 
0.793922 -1.53148 6.56489 157 128 75 
0.0497391 -1.5805 6.87713 68 56 40 
-0.86973 -1.87166 8.36931 45 64 65 
0.323863 -1.48503 6.7875 94 76 47 
1.24894 -1.42331 6.69677 73 45 23 
0.405926 -1.4162 6.75991 71 50 26 
1.22083 -1.39683 6.69482 169 112 75 
1.27542 -1.38616 6.69161 185 130 91 
0.371149 -1.39525 6.76864 239 213 165 
1.12942 -1.37378 6.65919 147 92 58 
1.12942 -1.37378 6.65919 147 92 58 
1.15704 -1.27985 6.62075 69 38 16 
0.452294 -1.2915 6.80216 37 8 0 
0.060472 -1.18438 6.72855 255 218 167 
1.07209 -1.16164 6.58209 104 58 31 
1.14501 -1.16185 6.59409 209 149 98 
0.364035 -1.15294 6.59497 75 47 21 
1.46435 -1.14419 6.72798 103 69 42 
0.71 -1.07269 6.29103 253 220 172 
0.654435 -1.07259 6.33813 253 226 178 
0.591575 -1.04121 6.38427 131 110 80 
1.11976 -1.04806 6.58891 156 110 72 
1.26168 -0.999219 6.58515 56 34 14 
1.15962 -0.990574 6.59006 57 24 5 
1.20168 -0.993681 6.58815 150 105 71 
-0.0944581 -0.998969 6.68792 37 28 20 
0.448433 -0.961529 6.43234 245 216 172 
0.24677 -0.944815 6.51271 255 235 182 
1.0455 -0.95603 6.585 214 152 108 
1.0455 -0.95603 6.585 214 152 108 
-0.0762947 -0.908147 6.61558 255 234 196 
0.980901 -0.887196 6.59476 39 12 0 
1.20713 -0.869326 6.59204 103 50 25 
-0.550008 -1.04362 8.2298 186 192 209 
-0.550008 -1.04362 8.2298 186 192 209 
1.11161 -0.849401 6.59218 78 48 16 
0.768139 -0.837673 6.62475 142 99 61 
1.48157 -0.832027 6.69141 78 52 24 
1.69039 -0.827192 6.77826 51 30 20 
0.867777 -0.787418 6.56164 133 114 74 
0.737256 -0.751158 6.62734 44 27 0 
0.899747 -0.735005 6.58983 148 114 78 
0.899747 -0.735005 6.58983 148 114 78 
1.03778 -0.728099 6.5945 119 72 37 
1.16339 -0.692884 6.60489 56 34 11 
0.933818 -0.680635 6.62038 193 154 113 
1.2858 -0.647224 6.68378 178 128 85 
1.2858 -0.647224 6.68378 178 128 85 
1.47117 -0.630398 6.726 84 55 28 
1.52118 -0.610787 6.74814 194 137 91 
1.23479 -0.597996 6.71377 144 94 63 
1.5374 -0.564713 6.80829 180 121 82 
0.749503 -0.545937 6.65639 107 75 28 
-0.768951 -0.639448 8.0742 107 116 109 
1.55425 -0.5353 6.80287 47 38 18 
-0.0344534 -0.584664 7.81356 88 88 107 
1.41109 -0.522156 6.74462 245 176 123 
0.801314 -0.484166 6.72086 112 69 20 
0.727485 -0.469019 6.73974 91 59 25 
0.921626 -0.458508 6.7323 40 24 1 
0.775349 -0.448533 6.72458 255 229 167 
1.56109 -0.447144 6.86267 84 47 25 
1.56109 -0.447144 6.86267 84 47 25 
1.05095 -0.417443 6.7548 66 43 15 
1.06708 -0.362847 6.76677 102 71 34 
1.34554 -0.36394 6.79993 237 175 127 
0.813843 -0.354522 6.81406 93 58 20 
1.14376 -0.296714 6.81511 75 52 27 
0.777057 -0.294414 6.92014 140 115 68 
0.892955 -0.220681 6.91375 247 186 131 
1.16374 -2.4362 7.66076 109 112 123 
0.275861 -2.50198 7.96096 107 107 120 
0.275861 -2.50198 7.96096 107 107 120 
-1.47612 -2.55202 8.67798 175 178 189 
-0.416392 -2.37768 8.23699 85 98 105 
-0.416392 -2.37768 8.23699 85 98 105 
-1.37495 -2.37559 8.71059 134 137 151 
-0.801006 -2.17598 8.45982 88 102 109 
0.590221 -1.70421 6.72478 200 163 106 
0.687015 -1.65853 6.66398 137 110 62 
0.687015 -1.65853 6.66398 137 110 62 
-1.02377 -1.95401 8.43585 126 128 140 
0.546451 -1.51706 6.72138 250 219 170 
-0.606027 -1.77086 8.28299 194 200 214 
0.226042 -1.40062 6.77692 105 82 45 
0.839919 -1.2779 6.34786 191 161 111 
0.488752 -1.31213 6.80554 122 88 45 
0.768045 -1.1448 6.31284 255 217 166 
0.74569 -1.11534 6.34743 107 76 49 
0.406824 -1.13646 6.61055 255 229 179 
0.213284 -1.12957 6.67489 247 200 136 
1.32033 -1.10862 6.61687 97 55 25 
1.27588 -1.03782 6.58945 220 152 101 
1.44345 -0.938501 6.67098 38 27 7 
1.1492 -0.917508 6.61027 109 68 41 
1.27443 -0.911864 6.60066 37 9 1 
1.55493 -0.87126 6.74909 31 25 13 
1.07111 -0.837823 6.57181 226 155 115 
1.33439 -0.819939 6.65275 217 155 111 
1.21875 -0.664852 6.66259 51 31 6 
1.21875 -0.664852 6.66259 51 31 6 
0.71472 -0.616477 6.63126 93 60 23 
1.00015 -0.605109 6.62803 215 162 108 
0.488968 -0.589237 6.82542 122 88 50 
1.20257 -0.577997 6.6947 47 25 4 
1.04814 -0.562166 6.65675 247 191 131 
0.66131 -0.555716 6.71769 240 204 156 
1.17244 -0.551264 6.70497 225 160 110 
1.17244 -0.551264 6.70497 225 160 110 
0.846264 -0.546708 6.68484 57 33 1 
0.0565876 -0.588369 7.77025 76 81 95 
1.37414 -0.516567 6.7504 80 41 15 
1.20664 -0.504517 6.70484 247 181 119 
0.582915 -0.494382 6.78335 107 83 52 
0.629709 -0.477986 6.75947 255 239 184 
0.629709 -0.477986 6.75947 255 239 184 
1.09305 -0.467884 6.73982 57 39 13 
1.16018 -0.43405 6.74593 252 196 126 
1.20488 -0.426167 6.71619 88 50 21 
1.18784 -0.38431 6.729 214 164 113 
1.04026 -0.261722 6.82227 82 56 34 
0.857424 -0.20562 6.93089 114 89 48 
0.857424 -0.20562 6.93089 114 89 48 
1.25269 -0.137416 7.0347 61 50 28 
1.07137 0.160106 7.21001 88 91 101 
0.338137 -2.48712 7.95532 77 86 98 
-0.491107 -2.41636 8.40421 177 178 190 
0.694973 -1.77172 6.6305 201 169 116 
-0.897806 -1.97145 8.43991 166 172 185 
0.651654 -1.51471 6.66113 255 248 192 
0.596954 -1.50375 6.71087 59 42 15 
-0.602777 -1.76733 8.23911 192 197 212 
0.273312 -1.48059 6.79829 255 223 176 
-1.11008 -1.73956 8.37817 160 168 182 
0.235156 -1.35057 6.76918 251 220 173 
0.677392 -1.16662 6.45462 255 235 185 
-0.919093 -1.26238 8.18078 133 140 154 
-0.842758 -1.27848 8.23594 177 180 195 
-0.961159 -1.16534 8.42863 169 174 186 
-1.43314 -1.11561 8.46775 193 200 216 
0.673713 -0.847684 6.59157 148 101 64 
-1.49861 -1.00997 8.43602 189 192 207 
-0.589522 -0.959291 8.19469 180 182 201 
1.49355 -0.704807 6.69958 63 44 24 
1.09418 -0.674247 6.63112 43 21 0 
1.31225 -0.683648 6.69149 36 24 5 
-1.30162 -0.823353 8.45071 32 40 42 
0.848078 -0.636475 6.63586 81 50 21 
-0.345205 -0.711985 7.78186 39 43 47 
0.964554 -0.580872 6.63366 52 28 2 
0.692921 -0.516442 6.71194 75 51 29 
-0.754321 -0.582056 8.12843 72 85 81 
1.4749 -0.422649 6.82498 75 40 24 
0.951243 -0.158068 7.00044 99 57 35 
-0.343085 -0.0526752 7.73502 143 150 165 
0.114022 -0.0391554 7.73518 193 198 212 
0.113948 -1.53715 6.83303 255 233 181 
-1.17725 -1.80616 8.45239 194 200 217 
-0.660206 -1.66258 8.25611 194 200 215 
0.311365 -1.32754 6.72931 253 227 181 
-0.945144 -1.47698 8.34074 159 165 181 
0.991314 -1.18996 6.54418 75 43 22 
1.38271 -1.09467 6.62832 248 184 133 
1.64452 -0.913974 6.77118 73 57 46 
1.26684 -0.840768 6.58843 246 188 136 
1.5017 -0.777506 6.70591 250 188 133 
1.30879 -0.77046 6.667 76 52 30 
1.71581 -0.757104 6.79372 87 62 39 
1.2301 -0.725095 6.64344 193 140 94 
1.2301 -0.725095 6.64344 193 140 94 
1.11453 -0.556612 6.71076 39 15 1 
1.69546 -0.55675 6.87432 103 64 43 
0.86976 -0.476296 6.73835 205 160 104 
0.751692 -0.119787 7.11833 49 52 50 
0.443837 -1.5182 6.75446 237 198 148 
-1.18322 -1.80933 8.4826 197 204 220 
0.499126 -1.44568 6.74678 38 30 3 
1.68027 -1.26042 6.94102 27 26 26 
0.258769 -1.07299 6.60883 108 81 38 
0.658116 -1.03522 6.33756 245 214 166 
1.26557 -1.07047 6.58765 223 158 100 
1.55036 -0.954256 6.67925 189 141 103 
-0.703863 -1.00982 8.11784 184 189 205 
1.52163 -0.282344 6.92741 104 68 36 
0.964949 -0.254932 6.85305 223 176 124 
-1.2308 -0.198991 8.12848 120 130 141 
0.497585 -1.43587 6.73691 33 24 0 
-1.18965 -1.57352 8.47746 208 212 231 
0.852927 -1.1091 6.39031 76 45 25 
-1.02698 -1.28017 8.32055 189 197 207 
-0.863986 -0.886452 8.13597 228 226 210 
0.646267 -0.254765 7.0246 255 225 168 
-1.16888 0.0845872 8.24288 192 194 210 
1.42844 -2.12346 7.46942 160 158 176 
1.72737 -1.85239 7.26891 153 150 164 
-0.989696 -1.8674 8.50232 211 218 230 
-0.764817 -1.56609 8.33861 181 184 199 
0.14522 -1.2518 6.74185 103 63 29 
0.367514 -1.23742 6.61242 42 16 1 
-1.02574 -1.05586 8.06098 196 200 213 
0.795448 -0.509852 6.74595 211 161 106 
0.795448 -0.509852 6.74595 211 161 106 
-0.300031 -0.505214 7.87039 41 42 46 
-1.01851 -0.0599733 8.10547 62 63 66 
1.70113 -2.20366 7.35582 139 139 154 
1.59263 -1.4539 7.06836 194 187 204 
-0.778504 -1.57326 8.43386 181 184 199 
1.17149 -0.796245 6.58604 201 137 85 
0.812875 -0.714863 6.6334 70 44 15 
0.942982 -0.39275 6.82538 109 78 47 
0.772876 -1.28245 6.48076 255 225 175 
0.650377 -1.11528 6.45705 245 212 165 
-1.32875 -0.972684 8.46013 26 41 47 
0.519698 -1.33008 6.66466 90 61 29 
0.852807 -1.02607 6.58271 75 41 21 
2.18848 -0.23013 6.37696 124 123 129 
-0.717378 -0.2038 7.92315 29 29 29 
0.214805 -0.111843 7.23393 222 224 240 
1.63731 -0.118551 7.05758 18 15 17 
1.63731 -0.118551 7.05758 18 15 17 
0.511111 -0.0361736 7.0295 15 11 14 
0.511111 -0.0361736 7.0295 15 11 14 
0.771629 -0.856518 6.68744 123 87 54 
1.81988 -0.236136 7.02157 22 22 22 
