ply                 
format ascii 1.0    
element vertex 402
property float x    
property float y    
property float z    
property uchar red  
property uchar green
property uchar blue 
end_header          
14.9396 -24.0745 69.1477 140 129 119 
0.975523 -0.531275 1.98696 58 31 45 
5.56487 -2.79778 9.33636 106 88 104 
-6.44542 19.0436 -96.2533 133 129 120 
1.49879 -1.33727 7.44671 126 108 99 
-1.52261 1.11026 -5.98315 148 97 77 
2.07492 -1.30219 8.47431 38 26 21 
2.02828 -0.637684 7.44514 198 161 150 
2.44001 -0.917943 17.056 55 31 10 
5.28344 -1.18006 28.5991 242 219 197 
-0.874198 1.07103 -3.65885 53 55 42 
1.72717 -1.30519 7.03946 52 47 44 
1.89409 -0.650354 9.05051 95 59 45 
0.644554 -0.422682 1.75956 219 191 213 
1.95733 -0.696123 9.67608 47 23 10 
0.934661 -0.877339 3.21789 43 30 30 
-7.33868 4.4828 -16.9567 216 187 199 
0.0635451 -1.68877 7.09873 143 170 173 
1.38683 -1.99007 9.22612 84 57 36 
6.9213 -0.726008 11.2068 158 125 123 
2.59994 -0.494766 9.87237 113 90 88 
19.1165 -15.7829 48.8318 23 35 38 
0.929379 -0.86705 2.98796 19 37 36 
2.26423 -1.77365 9.04071 129 111 111 
1.9691 -1.23832 9.15851 80 54 42 
2.54073 -0.760974 9.61742 120 93 76 
2.44067 -0.695848 9.59735 253 232 216 
2.59067 -0.690067 9.68159 150 121 107 
5.18439 -0.344705 10.4655 58 53 57 
5.18439 -0.344705 10.4655 58 53 57 
3.0503 0.26519 9.67702 126 103 101 
2.3345 0.276478 9.72489 138 65 90 
1.67525 0.277804 9.8599 246 227 228 
1.87442 0.293852 9.81721 252 233 244 
9.47983 -7.51888 23.08 24 35 42 
17.0081 -13.9858 43.2035 28 43 43 
0.928797 -0.880589 3.04487 23 40 39 
6.62216 -4.66797 15.4473 222 196 212 
8.11849 -3.59451 13.7466 86 48 74 
6.51604 -3.21262 13.3699 231 207 214 
1.9879 -1.82651 9.01154 51 36 27 
1.3973 -1.25706 9.50724 51 47 46 
4.27626 -1.47283 11.7321 193 153 141 
4.36753 -1.4809 11.8595 185 144 140 
4.36365 -1.20228 11.4363 133 77 81 
2.47853 -0.932196 9.39673 75 50 40 
1.4998 -0.82173 9.59276 255 248 246 
2.20371 -0.559528 9.6755 156 162 154 
5.2804 -0.335152 10.5393 152 153 154 
5.07713 -0.325294 10.198 54 49 53 
5.69476 -0.131364 10.4604 195 189 186 
5.65513 -0.080218 10.385 153 150 147 
2.98009 0.208423 9.77589 159 131 127 
1.93957 0.397734 9.65072 95 36 60 
1.91418 0.410657 9.6621 246 236 245 
2.51333 -3.50961 9.85023 54 38 31 
6.9119 -5.02117 15.1249 91 99 104 
6.70908 -4.88995 14.7957 83 94 99 
3.84095 -2.98051 9.20833 16 34 44 
6.70532 -4.96373 15.1458 103 113 123 
7.26698 -5.62426 17.1684 30 43 53 
0.791638 -0.672383 2.29773 32 41 50 
5.90833 -4.96795 15.5927 25 36 38 
4.26122 -3.58503 11.4896 83 94 97 
-4.42795 3.85148 -12.5958 178 158 152 
7.01301 -3.91231 14.4793 121 69 98 
6.0445 -3.33494 13.4295 138 63 94 
2.29352 -1.74906 9.06531 238 225 218 
2.29352 -1.74906 9.06531 238 225 218 
2.58884 -1.75714 9.15366 94 76 76 
1.67473 -1.64133 9.07322 180 166 145 
5.22899 -2.23485 12.3832 101 65 68 
1.93091 -1.49717 9.10948 140 88 74 
4.67088 -1.57925 11.8828 181 148 145 
2.6256 -1.14017 9.34069 189 160 151 
1.6674 -0.888932 9.41013 50 41 36 
2.38266 -0.820472 9.49484 250 210 198 
5.92887 -0.879806 11.0818 214 154 140 
2.57236 -0.649823 9.69279 117 89 83 
2.36078 -0.376126 9.88374 74 63 61 
5.56472 -0.361689 10.5802 153 112 104 
2.65125 -0.196309 10.331 40 26 26 
2.32497 -0.0650233 10.2285 41 22 31 
5.29039 -0.0581514 10.3808 197 185 189 
1.91908 0.0332795 10.1559 132 72 90 
2.54154 0.102629 9.90961 41 36 43 
2.74029 -3.34064 9.49524 167 152 143 
2.68992 -3.11895 9.29198 177 160 144 
5.41987 -4.50543 14.3183 94 100 104 
14.6217 -13.3161 43.1868 100 110 104 
2.19651 -2.45275 8.76133 179 171 167 
2.21615 -2.3552 8.95292 29 20 18 
0.367385 -1.62956 6.53542 48 69 69 
2.06647 -2.2297 9.0381 28 29 25 
1.64736 -2.14414 9.0445 180 167 157 
5.83158 -3.26062 13.6108 230 212 217 
6.62081 -3.16124 13.4331 146 98 112 
2.67998 -2.13054 9.27332 174 140 138 
6.01299 -3.01954 13.1969 216 188 195 
2.23066 -1.97879 9.04116 223 215 207 
2.33315 -1.96625 9.08118 196 187 177 
7.52835 -2.84203 13.1918 164 161 168 
2.47392 -1.89206 9.09621 156 142 142 
2.02712 -1.83816 9.00551 176 161 167 
1.70808 -1.79089 9.03169 51 41 33 
2.45275 -1.76502 9.12275 41 28 19 
5.35644 -2.19416 12.2295 75 32 36 
2.25384 -1.58283 9.07238 162 138 124 
2.80704 -1.52024 9.43269 108 88 92 
2.64365 -1.44545 9.36961 47 34 25 
2.64365 -1.44545 9.36961 47 34 25 
1.81543 -1.32693 9.27275 215 193 186 
2.10309 -1.31856 9.2185 166 163 156 
2.84056 -1.3165 9.4515 47 30 29 
2.24918 -1.20061 9.24379 185 178 168 
2.24918 -1.20061 9.24379 185 178 168 
1.27123 -1.21709 9.49862 186 186 179 
1.27123 -1.21709 9.49862 186 186 179 
6.42225 -1.29915 11.4355 199 177 164 
6.4854 -1.23928 11.4066 200 178 166 
5.64581 -1.15211 11.421 151 84 89 
1.47984 -0.857796 9.62328 32 27 34 
1.47984 -0.857796 9.62328 32 27 34 
1.8217 -0.718467 9.57686 103 71 58 
1.43135 -0.637328 9.93337 35 13 4 
4.5512 -0.634651 10.8075 161 100 104 
1.91983 -0.534182 9.71266 255 229 207 
6.17622 -0.40214 10.7545 71 29 34 
5.67975 -0.302358 10.5871 220 188 177 
4.71484 -0.28488 10.5687 129 75 65 
5.62182 -0.269495 10.5673 90 62 66 
5.69988 -0.252584 10.4997 204 173 150 
4.67968 -0.174939 10.3306 160 115 89 
0.836205 -0.118397 10.4735 169 159 159 
3.42718 -0.0215452 10.0982 195 180 184 
6.25176 0.0212945 10.3584 56 54 57 
1.2462 0.0868388 10.0703 86 21 37 
4.3406 0.107693 10.0481 128 109 99 
4.82117 0.108183 10.0979 132 116 96 
2.46865 0.156411 9.88169 66 32 44 
0.154097 0.376168 9.98144 168 140 137 
1.62058 0.392486 9.68926 162 152 153 
2.62486 -3.60435 9.84154 49 69 68 
3.55605 -3.23518 10.6764 96 112 107 
2.45831 -2.47768 8.97231 36 27 26 
6.9045 -3.44554 13.7789 239 211 226 
1.92618 -2.11595 9.04026 233 209 193 
6.23252 -3.17379 13.4394 230 208 214 
1.68649 -2.0588 9.09387 30 18 12 
1.87678 -2.01303 9.03133 18 4 1 
5.00462 -3.00116 13.2752 234 217 220 
1.93448 -2.00333 9.04447 208 193 181 
2.13406 -1.95266 9.04746 199 186 175 
2.13406 -1.95266 9.04746 199 186 175 
1.59037 -1.94869 9.08626 184 160 140 
1.92762 -1.91903 9.01459 196 181 175 
2.03023 -1.9252 9.03365 193 177 171 
1.47114 -1.91322 9.09468 179 157 136 
1.52431 -1.89074 9.08419 58 39 33 
1.77411 -1.83442 9.02437 185 168 161 
1.96954 -1.74346 9.02902 28 15 12 
1.56267 -1.75767 9.12564 186 164 145 
2.10167 -1.72006 9.03165 38 27 21 
2.10167 -1.72006 9.03165 38 27 21 
2.30166 -1.63722 9.08808 255 246 229 
2.06439 -1.57077 9.04459 255 232 206 
1.28174 -1.6109 9.42482 27 8 8 
1.57661 -1.52541 9.21014 242 209 184 
2.70643 -1.4457 9.3715 253 226 194 
2.35553 -1.36184 9.26185 173 164 161 
2.22639 -1.29966 9.24832 198 189 181 
2.35654 -1.27107 9.26114 237 232 221 
2.35654 -1.27107 9.26114 237 232 221 
2.69872 -1.25276 9.34866 44 24 17 
1.52276 -1.18203 9.35839 253 241 226 
4.59207 -1.49061 11.6716 83 29 31 
2.20234 -1.15399 9.25241 16 6 2 
1.21536 -1.18958 9.59858 50 35 25 
3.03614 -1.18217 9.6977 64 38 39 
2.2467 -1.03794 9.27936 248 234 225 
5.30921 -1.28185 11.4579 43 25 24 
4.45362 -1.23453 11.5063 218 181 179 
2.41374 -0.961493 9.39682 49 38 32 
4.22148 -1.14539 11.4008 218 194 182 
2.17117 -0.919912 9.3665 101 77 51 
5.54189 -1.08384 11.2749 230 184 170 
1.87522 -0.874334 9.44209 44 31 26 
5.85773 -1.05523 11.2842 223 176 164 
-0.0318609 -1.0592 11.805 76 7 30 
3.96717 -0.899829 11.1309 208 169 152 
3.96717 -0.899829 11.1309 208 169 152 
4.3935 -0.857005 10.9622 171 122 114 
5.17648 -0.78178 11.0091 213 166 156 
4.23036 -0.689508 10.8836 174 110 88 
3.89621 -0.624494 10.7404 216 197 186 
3.99591 -0.517368 10.7153 141 121 108 
2.13013 -0.441768 9.78362 237 230 230 
-0.751032 -0.48993 11.3072 95 45 57 
2.07384 -0.406414 9.78966 61 48 41 
0.579419 -0.454126 11.0308 176 162 158 
5.30396 -0.366986 10.5776 145 149 145 
2.42476 -0.291032 10.0963 30 22 21 
6.1349 -0.263959 10.6512 195 192 185 
5.36255 -0.250638 10.4078 195 201 204 
2.69672 -0.231232 10.2975 31 15 18 
2.3129 -0.184687 10.203 255 237 220 
6.34047 -0.191179 10.5616 219 209 208 
3.27259 -0.0932224 10.1681 113 96 85 
4.95243 -0.0658562 10.3154 232 212 205 
1.48362 -0.0536457 10.2272 207 182 182 
1.48362 -0.0536457 10.2272 207 182 182 
4.95473 0.0017174 10.2276 149 108 71 
1.35551 0.0629639 10.0846 113 42 57 
2.52771 0.150297 9.89108 197 196 195 
2.52771 0.150297 9.89108 197 196 195 
-1.13416 0.203422 10.6644 144 91 108 
-1.13416 0.203422 10.6644 144 91 108 
0.534267 0.25972 10.0843 74 65 66 
1.72994 0.272146 9.84439 102 45 63 
0.72903 0.352796 9.90232 152 158 154 
2.38072 0.350379 9.65859 208 183 198 
2.09527 -2.53195 8.52769 237 244 241 
6.36959 -4.13779 14.3487 155 97 124 
1.3253 -2.40393 9.23689 226 199 166 
2.10964 -2.27822 9.02049 250 221 178 
6.56209 -3.48927 13.7037 137 103 108 
5.11018 -3.13616 13.4611 136 78 86 
2.73582 -1.9378 9.20704 74 47 47 
1.61607 -1.81186 9.05691 44 30 23 
2.55159 -1.82548 9.1197 38 28 28 
2.03523 -1.74164 9.0393 255 235 206 
2.03523 -1.74164 9.0393 255 235 206 
5.09433 -2.10707 12.0942 155 139 132 
1.51313 -1.52253 9.28929 19 14 10 
1.49527 -1.36915 9.30107 31 24 24 
2.48118 -1.34617 9.28664 209 200 193 
1.94853 -1.31082 9.22318 209 195 160 
1.94853 -1.31082 9.22318 209 195 160 
2.92226 -1.32204 9.4982 113 98 107 
1.59514 -1.22527 9.29521 41 15 2 
1.86388 -1.18794 9.22864 32 21 21 
6.32663 -1.35464 11.5877 110 43 51 
1.71825 -1.06079 9.35664 55 47 40 
1.71825 -1.06079 9.35664 55 47 40 
1.34131 -1.06894 9.5388 34 7 1 
4.07361 -1.2923 11.4521 68 17 13 
2.19142 -1.01202 9.30825 35 17 4 
-0.737811 -1.28366 12.4563 90 22 43 
1.66567 -0.965303 9.39273 204 213 213 
2.13181 -0.869036 9.44164 255 245 206 
6.06655 -1.03099 11.2631 234 179 129 
5.25557 -0.970117 11.1714 237 195 183 
2.5282 -0.714451 9.62237 241 215 198 
2.43878 -0.653283 9.62927 255 239 218 
2.34999 -0.649088 9.58963 67 53 41 
0.0572133 -0.75962 11.5876 134 59 82 
4.92275 -0.714157 10.9253 105 50 34 
0.615364 -0.717641 11.1963 142 125 128 
6.42203 -0.629891 10.9845 85 20 17 
2.18625 -0.516106 9.70793 34 29 29 
6.20783 -0.544289 10.8604 118 60 64 
6.25588 -0.45583 10.8047 236 200 189 
-0.677095 -0.467343 11.3524 106 59 72 
-1.28945 -0.38482 11.485 98 30 49 
3.25699 -0.282525 10.459 73 34 44 
0.290383 -0.208988 10.7008 219 222 217 
0.955636 -0.197251 10.5384 209 175 180 
-0.144109 -0.161201 10.705 175 187 181 
5.4133 -0.0894119 10.3261 202 212 207 
5.03879 -0.0665512 10.3473 229 214 213 
5.03879 -0.0665512 10.3473 229 214 213 
4.3622 0.0417164 10.1223 200 171 171 
4.64624 0.0451101 10.1373 205 190 182 
2.12926 0.0612887 10.1137 168 142 149 
2.95469 0.0646367 9.97938 98 78 73 
1.86504 0.316269 9.75965 183 171 180 
1.86504 0.316269 9.75965 183 171 180 
1.03983 0.435918 9.77872 178 166 171 
7.49767 -4.55287 14.8872 90 58 84 
6.26377 -4.42626 14.8375 238 218 232 
6.47492 -3.88143 14.0931 107 48 75 
6.80643 -3.1462 13.3207 81 20 44 
7.49986 -2.62937 12.9909 115 72 85 
2.08961 -1.80591 9.04119 32 26 20 
2.08961 -1.80591 9.04119 32 26 20 
1.85926 -1.78599 9.02682 13 5 1 
6.40721 -2.55638 12.8164 58 32 30 
2.17134 -1.77179 9.05186 225 212 192 
1.74215 -1.68321 9.07027 30 21 15 
1.17815 -1.63269 9.50917 41 37 44 
1.93858 -1.55683 9.06724 255 239 207 
2.13 -1.44575 9.19215 32 23 20 
2.13 -1.44575 9.19215 32 23 20 
1.962 -1.40374 9.18909 201 181 160 
2.21878 -1.40648 9.20111 227 202 187 
2.02671 -1.31448 9.22775 4 2 0 
0.0665524 -1.82758 12.9078 222 191 210 
5.66165 -1.3683 11.548 77 20 22 
5.41326 -1.34663 11.5016 148 129 116 
1.2914 -0.993318 9.63153 216 199 173 
2.60478 -0.951877 9.48317 36 21 13 
2.03586 -0.86866 9.4487 45 29 14 
2.56576 -0.855581 9.53414 255 217 198 
1.72107 -0.84202 9.51101 45 26 24 
1.9247 -0.729556 9.64222 26 8 0 
4.28419 -0.793246 10.984 92 32 38 
3.96083 -0.715894 10.8267 136 88 68 
3.80403 -0.616591 10.8868 118 95 81 
5.105 -0.602603 10.8282 192 164 142 
4.377 -0.523895 10.6983 124 72 62 
4.76261 -0.453705 10.6143 91 34 33 
4.09245 -0.446389 10.6606 151 129 116 
4.5345 -0.44453 10.6348 73 21 20 
-0.840985 -0.416913 11.2929 74 43 51 
-1.04183 -0.309399 11.2171 132 87 106 
5.909 -0.210951 10.5385 236 222 219 
5.77817 -0.142875 10.5025 147 122 117 
3.61578 -0.118794 10.2665 161 145 139 
3.49961 -0.104494 10.2615 55 26 33 
7.23093 -4.03854 14.3748 77 26 52 
6.0691 -3.96923 14.2718 146 76 102 
7.16222 -4.03441 14.734 140 78 108 
1.51043 -2.14287 9.14993 137 105 89 
7.15048 -3.12361 13.3867 67 11 38 
7.15048 -3.12361 13.3867 67 11 38 
6.34439 -3.03384 13.2547 110 53 78 
1.39633 -1.54801 9.35415 9 11 8 
1.11757 -1.51749 9.63181 140 124 120 
-0.174988 -2.0382 13.1435 60 12 29 
5.34488 -1.81483 12.0216 61 23 25 
5.65339 -1.65662 11.7859 101 83 65 
1.43809 -1.19487 9.40277 60 41 37 
1.62648 -1.1159 9.32465 241 226 209 
1.62648 -1.1159 9.32465 241 226 209 
2.45837 -1.00541 9.34397 15 9 3 
1.98953 -0.983313 9.35944 255 234 186 
6.39902 -1.17639 11.3815 88 28 44 
6.07649 -1.16368 11.4156 225 171 150 
-1.05022 -1.1193 12.3387 65 8 22 
0.270075 -0.958922 11.522 70 8 25 
2.2909 -0.773121 9.52413 255 251 207 
3.48194 -0.527305 10.6695 127 103 97 
-0.275097 -0.488643 11.2671 159 164 165 
6.01486 -0.326681 10.6268 69 20 28 
-2.66038 -0.345782 11.9515 178 191 188 
3.13509 -0.238134 10.4043 194 188 193 
-2.26024 -0.249987 11.7 59 16 30 
1.11368 -0.0700861 10.342 201 170 169 
1.40544 -0.0146381 10.1311 203 187 183 
-0.555173 0.0291134 10.6367 89 29 38 
0.384426 0.0391956 10.416 132 136 134 
2.07532 0.0396603 10.175 174 141 150 
1.14422 0.0559102 10.2851 73 6 25 
2.64291 0.119824 9.88307 78 50 60 
2.23471 0.118983 9.98725 68 8 31 
1.56368 0.232061 9.91186 65 5 14 
6.46791 -3.65027 13.8678 221 190 204 
7.39261 -2.90323 13.2954 143 132 131 
1.73649 -1.53621 9.06021 177 149 126 
5.4075 -2.02702 12.1062 161 147 130 
5.46398 -1.61507 11.9595 178 162 153 
6.72939 -1.13609 11.3724 89 21 44 
6.3896 -1.01761 11.2111 230 198 167 
3.72068 -0.738042 11.007 165 138 130 
0.19335 -0.650337 11.2241 46 2 4 
-0.442052 -0.627345 11.4784 49 4 21 
5.49818 -0.44347 10.658 122 63 71 
-0.672464 -0.30701 10.9885 143 148 141 
4.95904 -0.23056 10.5403 139 112 90 
-1.3627 -0.206333 11.2659 117 44 66 
0.937123 -0.0525138 10.3857 46 6 13 
0.937123 -0.0525138 10.3857 46 6 13 
-0.272935 0.0438189 10.4901 92 39 51 
-1.60107 0.107966 10.907 67 4 18 
-1.84223 0.154354 10.9966 157 100 121 
-0.644726 0.180217 10.3579 208 191 191 
-0.797309 0.209954 10.5277 227 207 216 
0.218538 0.2079 10.2226 180 180 174 
-2.07404 0.294297 10.8398 203 187 179 
0.105297 -1.55514 12.4758 90 36 54 
-1.2157 -1.5465 12.748 109 50 65 
5.93289 -1.15771 11.361 218 165 133 
-1.10449 -0.156891 11.1441 202 187 186 
-2.31429 -0.0612829 11.451 152 165 162 
0.594001 0.007803 10.3388 79 33 41 
0.0366193 0.121599 10.367 51 16 24 
-0.559825 0.353896 10.2579 49 2 11 
1.51104 -1.62524 9.08363 171 142 116 
-1.84482 -1.11174 12.53 129 140 138 
5.14744 -0.964855 11.2099 228 191 163 
-1.37661 -0.939452 12.229 67 14 28 
0.920068 -0.679497 10.9068 94 30 46 
0.461184 -0.595253 11.0706 68 7 23 
-2.09001 0.106095 11.1511 83 23 40 
0.68613 0.25373 9.99109 160 162 160 
0.705125 -0.299035 10.4354 232 219 208 
1.10941 0.201324 10.2318 81 14 31 
1.40847 -1.43553 9.55302 74 56 50 
2.60464 -3.86444 10.0394 51 75 77 
-0.114432 0.212991 10.1732 114 98 101 
-0.688539 -0.915878 12.2138 82 17 33 
-1.02415 -0.0552839 10.7947 201 198 186 
